ply
format ascii 1.0
comment PCL generated
element vertex 1540
property float x
property float y
property float z
element camera 0
property float view_px
property float view_py
property float view_pz
property float x_axisx
property float x_axisy
property float x_axisz
property float y_axisx
property float y_axisy
property float y_axisz
property float z_axisx
property float z_axisy
property float z_axisz
property float focal
property float scalex
property float scaley
property float centerx
property float centery
property int viewportx
property int viewporty
property float k1
property float k2
end_header
1.1611787 0.17510322 -2.6389999
1.1611787 0.18385127 -2.6389999
1.1611787 0.1925993 -2.6389999
1.1655693 0.20790838 -2.6389999
1.1655693 0.2144694 -2.6389999
1.16996 0.22977847 -2.6389999
1.16996 0.25383559 -2.6389999
1.1688623 0.26586413 -2.6389999
1.1743506 0.2603966 -2.6389999
1.1677647 0.27351868 -2.6389999
1.1772777 0.2749767 -2.6389999
1.1655693 0.28664073 -2.6389999
1.176546 0.28226671 -2.6389999
1.1670328 0.29247275 -2.6389999
1.1831319 0.31288487 -2.6389999
1.1919132 0.33912897 -2.6389999
1.1919132 0.34569001 -2.6389999
1.1919132 0.35443804 -2.6389999
1.1963038 0.3653731 -2.6389999
1.2006946 0.36318609 -2.6389999
1.1963038 0.37412113 -2.6389999
1.086603 -0.21031056 -2.618
1.0953145 -0.21031056 -2.618
1.086603 -0.20380175 -2.618
1.0953145 -0.20380175 -2.618
1.104026 -0.20380175 -2.618
1.0844252 -0.19512331 -2.618
1.0953145 -0.19729292 -2.618
1.104026 -0.19729292 -2.618
1.0822474 -0.18861449 -2.618
1.1083816 -0.11267826 -2.618
1.1236266 -0.045420449 -2.618
1.1170931 -0.034572415 -2.618
1.1214488 -0.034572415 -2.618
1.1214488 -0.025893986 -2.618
1.1214488 -0.01070674 -2.618
1.1236266 0.017498149 -2.618
1.1258044 0.024006968 -2.618
1.1334269 0.02726138 -2.618
1.1353869 0.034421079 -2.618
1.1432272 0.12814809 -2.618
1.147583 0.13248731 -2.618
1.1562943 0.14984415 -2.618
1.1562943 0.15635298 -2.618
1.1562943 0.16720101 -2.618
1.1562943 0.17154023 -2.618
1.1562943 0.18889709 -2.618
1.1562943 0.1954059 -2.618
1.1562943 0.20191473 -2.618
1.1606501 0.21927159 -2.618
1.1606501 0.22361079 -2.618
1.1650058 0.23228922 -2.618
1.1650058 0.24747646 -2.618
1.1671836 0.25615489 -2.618
1.1671836 0.26483333 -2.618
1.1737173 0.27351174 -2.618
1.1650058 0.28435978 -2.618
1.1737173 0.30605584 -2.618
1.1780729 0.3277519 -2.618
1.1780729 0.33209112 -2.618
1.1867844 0.35378721 -2.618
1.1911401 0.35378721 -2.618
1.1911401 0.36680484 -2.618
1.1911401 0.37548327 -2.618
1.1911401 0.38633129 -2.618
1.1911401 0.39284012 -2.618
1.086947 -0.22162211 -2.598
1.078302 -0.21300998 -2.598
1.0855061 -0.21444535 -2.598
1.1042367 -0.10320533 -2.598
1.1042367 -0.096746236 -2.598
1.1236876 -0.053685591 -2.598
1.117204 -0.040767398 -2.598
1.1215265 -0.047226496 -2.598
1.117204 -0.034308299 -2.598
1.1128815 -0.017084043 -2.598
1.1128815 -0.0041658496 -2.598
1.1150427 0.013058409 -2.598
1.1344936 0.066884212 -2.598
1.1431385 0.13578124 -2.598
1.1517833 0.1659237 -2.598
1.1474609 0.17668885 -2.598
1.1474609 0.18314795 -2.598
1.1517833 0.19606616 -2.598
1.1517833 0.20467828 -2.598
1.1539446 0.21544343 -2.598
1.1561059 0.22405556 -2.598
1.1561059 0.23697376 -2.598
1.1604282 0.24773893 -2.598
1.1604282 0.25204498 -2.598
1.1647507 0.26281017 -2.598
1.1647507 0.27788138 -2.598
1.1561059 0.28649351 -2.598
1.1625894 0.28434047 -2.598
1.1647507 0.29941168 -2.598
1.1863629 0.38553298 -2.598
1.0832886 -0.22000131 -2.579
1.0704161 -0.18580472 -2.579
1.0875794 -0.13450986 -2.579
1.0875794 -0.12382342 -2.579
1.0918702 -0.12168614 -2.579
1.0918702 -0.11741156 -2.579
1.096161 -0.10886241 -2.579
1.1133243 -0.040469252 -2.579
1.1090335 -0.025508247 -2.579
1.1090335 -0.010547242 -2.579
1.1090335 -0.0041353833 -2.579
1.1047426 0.0044137626 -2.579
1.1090335 0.010825622 -2.579
1.1147546 0.017949909 -2.579
1.1176151 0.02364934 -2.579
1.1161848 0.046447065 -2.579
1.1161848 0.054996211 -2.579
1.1176151 0.062120494 -2.579
1.1261967 0.12196451 -2.579
1.1304876 0.1241018 -2.579
1.1347784 0.13051365 -2.579
1.14336 0.18608311 -2.579
1.14336 0.19035769 -2.579
1.1476508 0.21173054 -2.579
1.1691049 0.33996773 -2.579
1.1755412 0.33996773 -2.579
1.1819774 0.33996773 -2.579
1.1691049 0.3442423 -2.579
1.1733958 0.3442423 -2.579
1.1776865 0.37843889 -2.579
1.1776865 0.38698801 -2.579
1.1776865 0.39553717 -2.579
1.0710485 -0.23110975 -2.5599999
1.0561414 -0.22474512 -2.5599999
1.0646598 -0.22262359 -2.5599999
1.0568513 -0.21696615 -2.5599999
1.0646598 -0.21625897 -2.5599999
1.0753077 -0.21413743 -2.5599999
1.0774374 -0.20777281 -2.5599999
1.0838262 -0.20565127 -2.5599999
1.0657246 -0.18337509 -2.5599999
1.0639499 -0.17453535 -2.5599999
1.079567 -0.15261275 -2.5599999
1.079567 -0.14412659 -2.5599999
1.0838262 -0.14200506 -2.5599999
1.0859559 -0.13564043 -2.5599999
1.0863817 -0.12588134 -2.5599999
1.0880854 -0.11442503 -2.5599999
1.0923445 -0.0974527 -2.5599999
1.1093813 -0.044414189 -2.5599999
1.1051222 -0.033806484 -2.5599999
1.1051222 -0.025320321 -2.5599999
1.100863 -0.01683416 -2.5599999
1.100863 0.004381245 -2.5599999
1.1072518 0.012867408 -2.5599999
1.1136405 0.019232029 -2.5599999
1.1136405 0.023475111 -2.5599999
1.1136405 0.046812057 -2.5599999
1.1136405 0.055298217 -2.5599999
1.1093813 0.065905921 -2.5599999
1.1136405 0.063784383 -2.5599999
1.122159 0.065905921 -2.5599999
1.1093813 0.072270542 -2.5599999
1.1157702 0.07439208 -2.5599997
1.122159 0.07439208 -2.5599999
1.1093813 0.097729027 -2.5599999
1.1136405 0.097729027 -2.5599999
1.1093813 0.10621519 -2.5599999
1.1150603 0.10692237 -2.5599999
1.122159 0.10833673 -2.5599999
1.1093813 0.11257982 -2.5599999
1.11648 0.11399417 -2.5599999
1.1242886 0.11470135 -2.5599999
1.1264181 0.12318751 -2.5599999
1.1370661 0.1592537 -2.5599999
1.137776 0.16632551 -2.5599999
1.143455 0.16773987 -2.5599999
1.1363562 0.1733973 -2.5599999
1.143455 0.17198294 -2.5599999
1.137776 0.18471219 -2.5599999
1.143455 0.18683374 -2.5599999
1.1391958 0.19531989 -2.5599999
1.1391958 0.20380606 -2.5599999
1.143455 0.20380606 -2.5599999
1.143455 0.21441376 -2.5599999
1.143455 0.22502147 -2.5599999
1.143455 0.23562916 -2.5599999
1.1477143 0.24835841 -2.5599999
1.1477143 0.25260147 -2.5599999
1.1519735 0.26745227 -2.5599999
1.1519735 0.27593845 -2.5599999
1.1370661 0.28654614 -2.5599999
1.1455846 0.28654614 -2.5599999
1.1519735 0.28230307 -2.5599999
1.1363564 0.29220358 -2.5599999
1.1455846 0.29078922 -2.5599999
1.1519735 0.30776155 -2.5599999
1.1519735 0.31412616 -2.5599999
1.1562327 0.32261232 -2.5599999
1.1604919 0.32897696 -2.5599999
1.1626215 0.33322003 -2.5599999
1.1690103 0.37140775 -2.5599999
1.1732695 0.37989393 -2.5599999
1.1732695 0.39686623 -2.5599999
0.99968541 -0.60001433 -2.5409999
0.99968541 -0.59580278 -2.5409999
1.0567579 -0.22728869 -2.5409999
1.0630993 -0.22307709 -2.5409999
1.0729637 -0.21395199 -2.5409999
1.0800097 -0.21254812 -2.5409999
1.0736682 -0.20833653 -2.5409999
1.0652131 -0.1851728 -2.5409999
1.046189 -0.17674962 -2.5409999
1.0532349 -0.17464381 -2.5409999
1.0588717 -0.16411483 -2.5409999
1.0652131 -0.15779746 -2.5409999
1.0743729 -0.1563936 -2.5409999
1.0757821 -0.1472685 -2.5409999
1.0800097 -0.14095111 -2.5409999
1.0842373 -0.13463372 -2.5409999
1.0842373 -0.12621054 -2.5409999
1.0842373 -0.11778736 -2.5409999
1.0842373 -0.1030468 -2.5409999
1.1011477 -0.033555575 -2.5409999
1.1011477 -0.025132397 -2.5409999
1.0969201 -0.014603424 -2.5409999
1.1011477 -0.014603424 -2.5409999
1.0969201 -0.0040744506 -2.5409999
1.1011477 -0.0040744506 -2.5409999
1.0969201 0.0043487279 -2.5409999
1.1011477 0.0043487279 -2.5409999
1.1032615 0.012771907 -2.5409999
1.1096028 0.033829853 -2.5409999
1.1138304 0.035935648 -2.5409999
1.1096028 0.040147237 -2.5409999
1.1180581 0.073839955 -2.5409999
1.1081935 0.083667003 -2.5409999
1.1138304 0.082263134 -2.5409999
1.1096028 0.099109486 -2.5409999
1.1138304 0.099109486 -2.5409999
1.1096028 0.10332108 -2.5409999
1.1166488 0.10472494 -2.5409999
1.1328547 0.1770239 -2.5409999
1.139196 0.18755287 -2.5409999
1.1370823 0.19387026 -2.5409999
1.139196 0.20439923 -2.5409999
1.139196 0.21282241 -2.5409999
1.139196 0.22756296 -2.5409999
1.139196 0.23598614 -2.5409999
1.139196 0.24230354 -2.5409999
1.1434236 0.25493827 -2.5409999
1.1434236 0.28652522 -2.5409999
1.1434236 0.2949484 -2.5409999
1.1455374 0.30547738 -2.5409999
1.1476512 0.31390056 -2.5409999
1.1539927 0.31811213 -2.5409999
1.1546973 0.32372761 -2.5409999
1.1645616 0.37286279 -2.5409999
1.1645616 0.38128597 -2.5409999
0.99640644 -0.59134775 -2.5220001
1.0530522 -0.23394936 -2.5220001
1.0656402 -0.1837882 -2.5220001
1.0572481 -0.175428 -2.5220001
1.0635421 -0.175428 -2.5220001
1.0572481 -0.16497776 -2.5220001
1.0652206 -0.16414174 -2.5220001
1.0719341 -0.14616732 -2.5220001
1.07613 -0.13989717 -2.5220001
1.0803261 -0.13362703 -2.5220001
1.0803261 -0.12526682 -2.5220001
1.07613 -0.11063649 -2.5220001
1.0803261 -0.11899668 -2.5220001
1.07613 -0.10645638 -2.5220001
1.0803261 -0.093916096 -2.5220001
1.0803261 -0.089735992 -2.5220001
1.09711 -0.052115113 -2.5220001
1.101306 -0.052115113 -2.5220001
1.09711 -0.035394721 -2.5220001
1.09711 -0.024944477 -2.5220001
1.09711 -0.01449423 -2.5220001
1.09711 -0.0040439847 -2.5220001
1.09711 0.0043162117 -2.5220001
1.09711 0.010586359 -2.5220001
1.101306 0.018946555 -2.5220001
1.1027046 0.025913386 -2.5220001
1.105502 0.03148685 -2.5220001
1.101306 0.046117194 -2.5220001
1.1027046 0.055174071 -2.5220001
1.1071804 0.063255593 -2.5220001
1.1096979 0.077467926 -2.5220001
1.1076 0.083738074 -2.5220001
1.09711 0.090008222 -2.5220001
1.1046628 0.093352303 -2.5220001
1.113894 0.11508881 -2.5220001
1.113894 0.12344901 -2.5220001
1.1264819 0.16106988 -2.5220001
1.1306779 0.18197037 -2.5220001
1.1348739 0.20496091 -2.5220001
1.1331955 0.21624717 -2.5220001
1.1348739 0.2258614 -2.5220001
1.1348739 0.23422161 -2.5220001
1.1348739 0.2425818 -2.5220001
1.1390699 0.26975244 -2.5220001
1.1390699 0.27602261 -2.5220001
1.1390699 0.2969231 -2.5220001
1.1390699 0.30319321 -2.5220001
1.1453638 0.30528325 -2.5220001
1.1453638 0.31155342 -2.5220001
1.1516578 0.31364346 -2.5220001
1.1516578 0.3282738 -2.5220001
1.1516578 0.35544443 -2.5220001
1.1544552 0.36310795 -2.5220001
1.1610988 0.3752999 -2.5220001
1.1558539 0.38470513 -2.5220001
1.1621478 0.38470513 -2.5220001
1.1600498 0.3909753 -2.5220001
0.92643422 -0.85447782 -2.503
0.97224236 -0.66986483 -2.503
0.98889977 -0.59104133 -2.503
0.99514633 -0.59104133 -2.503
1.001393 -0.59104133 -2.503
0.99584037 -0.58550984 -2.503
1.001393 -0.58481842 -2.503
0.99722856 -0.57444692 -2.503
1.0513654 -0.21766675 -2.503
1.0638585 -0.20314662 -2.503
1.0596942 -0.17410637 -2.503
1.0596942 -0.16788347 -2.503
1.0638585 -0.15336335 -2.503
1.0680228 -0.14299183 -2.503
1.0749635 -0.13469462 -2.503
1.0742693 -0.11602589 -2.503
1.0721872 -0.097357161 -2.503
1.0946748 -0.013555313 -2.503
1.0950913 -0.0040135183 -2.503
1.1013378 -0.0019392152 -2.503
1.0950913 0.0042836946 -2.503
1.1013378 0.0042836946 -2.503
1.0955079 0.013825488 -2.503
1.1013378 0.010506604 -2.503
1.0971735 0.022952422 -2.503
1.0971735 0.045769759 -2.503
1.0971735 0.051992666 -2.503
1.1013378 0.054066971 -2.503
1.1013378 0.087255821 -2.503
1.1013378 0.093478732 -2.503
1.1055022 0.10592455 -2.503
1.1096666 0.11422177 -2.503
1.1075845 0.12459329 -2.503
1.1055022 0.13496479 -2.503
1.1096666 0.14533632 -2.503
1.1096666 0.15155922 -2.503
1.1221597 0.17645086 -2.503
1.1263241 0.18889667 -2.503
1.1263241 0.19511959 -2.503
1.1304884 0.20963971 -2.503
1.1304884 0.21586262 -2.503
1.1304884 0.22415984 -2.503
1.1304884 0.23453134 -2.503
1.1304884 0.24490286 -2.503
1.1315296 0.25631154 -2.503
1.1332647 0.26495445 -2.503
1.1346529 0.2739431 -2.503
1.1325706 0.28431463 -2.503
1.136735 0.29468614 -2.503
1.1443696 0.30505764 -2.503
1.1429815 0.31750348 -2.503
1.1429815 0.32165208 -2.503
1.1429815 0.33617219 -2.503
1.1429815 0.34446943 -2.503
1.1471459 0.35484093 -2.503
1.1554747 0.36590385 -2.503
1.1638035 0.36728674 -2.503
1.1585979 0.37454683 -2.503
1.1638035 0.37558398 -2.503
1.1582509 0.3866469 -2.503
1.1638035 0.38595548 -2.503
1.1554747 0.39217839 -2.503
0.9425112 -0.838036 -2.4849999
0.96525049 -0.66092879 -2.4849999
0.96525049 -0.65681005 -2.4849999
0.96938491 -0.60532534 -2.4849999
0.97351938 -0.603266 -2.4849999
0.9776538 -0.5991472 -2.4849999
0.98178816 -0.59090966 -2.4849999
1.0458717 -0.24081405 -2.4849999
1.0458717 -0.23463589 -2.4849999
1.0458717 -0.22433896 -2.4849999
1.0479389 -0.21610141 -2.4849999
1.0534515 -0.21335556 -2.4849999
1.0603423 -0.21198264 -2.4849999
1.0624095 -0.2037451 -2.4849999
1.0541406 -0.19344816 -2.4849999
1.0624095 -0.19962633 -2.4849999
1.0548296 -0.18589707 -2.4849999
1.0562078 -0.16461676 -2.4849999
1.0603423 -0.16255738 -2.4849999
1.0562078 -0.15843861 -2.4849999
1.0603423 -0.15431984 -2.4849999
1.0624095 -0.1440229 -2.4849999
1.0686111 -0.13784474 -2.4849999
1.0727456 -0.13578536 -2.4849999
1.0686111 -0.12342905 -2.4849999
1.0727456 -0.1296072 -2.4849999
1.0686111 -0.11313211 -2.4849999
1.0665439 -0.10489457 -2.4849999
1.0686111 -0.094597638 -2.4849999
1.0686111 -0.088419482 -2.4849999
1.0851488 -0.03693483 -2.4849999
1.0851488 -0.02251913 -2.4849999
1.0934176 -0.010162814 -2.4849999
1.1058209 -0.014281586 -2.4849999
1.0934176 -0.0060440414 -2.4849999
1.0975521 0.068093851 -2.4849999
1.0975521 0.074272014 -2.4849999
1.0975521 0.08045017 -2.4849999
1.0975521 0.096925259 -2.4849999
1.0975521 0.10104403 -2.4849999
1.1058209 0.11545973 -2.4849999
1.1030647 0.12575667 -2.4849999
1.1037537 0.13605359 -2.4849999
1.1058209 0.14429113 -2.4849999
1.1058209 0.15046929 -2.4849999
1.1161571 0.17518193 -2.4849999
1.1182243 0.18341947 -2.4849999
1.1223586 0.18753824 -2.4849999
1.1223586 0.19577579 -2.4849999
1.1244258 0.20607272 -2.4849999
1.126493 0.21431026 -2.4849999
1.126493 0.22460718 -2.4849999
1.1306275 0.22048841 -2.4849999
1.126493 0.23490413 -2.4849999
1.126493 0.24520105 -2.4849999
1.126493 0.25343859 -2.4849999
1.1306275 0.27609181 -2.4849999
1.1320057 0.28501585 -2.4849999
1.1347619 0.29256696 -2.4849999
1.1388963 0.30286387 -2.4849999
1.1388963 0.31522015 -2.4849999
1.1388963 0.32345772 -2.4849999
1.145098 0.32757649 -2.4849999
1.1388963 0.33581403 -2.4849999
1.1388963 0.34611094 -2.4849999
1.1430308 0.35434848 -2.4849999
1.1471652 0.36052668 -2.4849999
1.1533668 0.36052668 -2.4849999
1.1533668 0.38935807 -2.4849999
1.1457871 0.39622271 -2.4849999
1.1533668 0.39553624 -2.4849999
1.1455114 0.40500936 -2.4849999
1.1533668 0.40171438 -2.4849999
0.92747521 -0.86058831 -2.467
0.92460215 -0.85486382 -2.467
0.9336319 -0.85649937 -2.467
0.91721398 -0.84423256 -2.467
0.9262439 -0.83441907 -2.467
0.93568414 -0.83605468 -2.467
0.94184089 -0.83196574 -2.467
0.9623633 -0.70111972 -2.467
0.9623633 -0.66227484 -2.467
0.9623633 -0.65409696 -2.467
0.95415431 -0.64591908 -2.467
0.95415431 -0.63978565 -2.467
0.95825875 -0.61116308 -2.467
0.9623633 -0.61116308 -2.467
0.96441555 -0.6050297 -2.467
0.97330856 -0.59480733 -2.467
1.046505 -0.23293632 -2.467
1.046505 -0.22475845 -2.467
1.0526618 -0.22271398 -2.467
1.0471891 -0.21726207 -2.467
1.0526618 -0.21658057 -2.467
1.054714 -0.19204694 -2.467
1.062923 -0.19204694 -2.467
1.054714 -0.18386906 -2.467
1.062923 -0.18386906 -2.467
1.0485573 -0.17569119 -2.467
1.054714 -0.17773566 -2.467
1.062923 -0.17773566 -2.467
1.0485573 -0.16955778 -2.467
1.055398 -0.16410586 -2.467
1.0642911 -0.16410585 -2.467
1.0745523 -0.16274288 -2.467
1.0567662 -0.1552465 -2.467
1.0622388 -0.15592799 -2.467
1.0567662 -0.14706862 -2.467
1.0618968 -0.14400192 -2.467
1.0690796 -0.13480181 -2.467
1.0752363 -0.13275734 -2.467
1.0649751 -0.122535 -2.467
1.0649751 -0.11435712 -2.467
1.0649751 -0.10413478 -2.467
1.0772886 -0.10004584 -2.467
1.0834453 -0.10209031 -2.467
1.0649751 -0.095956899 -2.467
1.0731841 -0.044845171 -2.467
1.0772886 -0.030533889 -2.467
1.0772886 -0.026444953 -2.467
1.0863185 -0.014995927 -2.467
1.0950747 -0.011452179 -2.467
1.0896021 -0.0039557926 -2.467
1.0950747 -0.0046372823 -2.467
1.0896021 0.0042220829 -2.467
1.0937065 0.0042220829 -2.467
1.0854976 0.014444428 -2.467
1.0854976 0.047155932 -2.467
1.0896021 0.059422746 -2.467
1.0896021 0.063511685 -2.467
1.0937065 0.07373403 -2.467
1.0896021 0.086000845 -2.467
1.0896021 0.092134252 -2.467
1.0937065 0.09622319 -2.467
1.0950747 0.10440107 -2.467
1.1019155 0.11462341 -2.467
1.0978111 0.12689023 -2.467
1.1019155 0.12075682 -2.467
1.1019155 0.1350681 -2.467
1.10602 0.16573514 -2.467
1.1121767 0.17595749 -2.467
1.114229 0.18209089 -2.467
1.1183333 0.19640218 -2.467
1.1183333 0.20253557 -2.467
1.1224378 0.21275792 -2.467
1.1224378 0.22502473 -2.467
1.1224378 0.23524708 -2.467
1.1224378 0.24342495 -2.467
1.123806 0.25705475 -2.467
1.1224378 0.26591411 -2.467
1.1265423 0.2802254 -2.467
1.1306468 0.29453668 -2.467
1.1347512 0.30271456 -2.467
1.1361194 0.32384074 -2.467
1.1347512 0.33542606 -2.467
1.1347512 0.34360394 -2.467
1.1388558 0.35382628 -2.467
1.1450124 0.35382628 -2.467
1.1450124 0.40493801 -2.467
1.1450124 0.41107142 -2.467
0.9170078 -0.84247577 -2.45
0.92312211 -0.84450614 -2.45
0.9170078 -0.83638459 -2.45
0.92448086 -0.83570784 -2.45
0.93331259 -0.83232385 -2.45
0.95573163 -0.6922276 -2.45
0.95573163 -0.6881668 -2.45
0.95573163 -0.66583264 -2.45
0.95573169 -0.64485198 -2.45
0.96388406 -0.64755923 -2.45
0.95369357 -0.63943768 -2.45
0.95980787 -0.61101234 -2.45
0.95980787 -0.60492122 -2.45
0.96388406 -0.60289085 -2.45
0.96592218 -0.59679973 -2.45
1.0372555 -0.24148308 -2.45
1.0413318 -0.24148308 -2.45
1.0372555 -0.23742232 -2.45
1.0413318 -0.23742232 -2.45
1.047446 -0.17245013 -2.45
1.0535604 -0.17245013 -2.45
1.047446 -0.16838937 -2.45
1.0535604 -0.16838937 -2.45
1.0576365 -0.15214632 -2.45
1.0617127 -0.15417671 -2.45
1.0576365 -0.14605519 -2.45
1.0617127 -0.14605519 -2.45
1.0657889 -0.13725688 -2.45
1.0739413 -0.1338729 -2.45
1.0657889 -0.10341719 -2.45
1.0759795 -0.10747795 -2.45
1.0576365 -0.0912349 -2.45
1.0646242 -0.095295668 -2.45
1.0759795 -0.095295668 -2.45
1.0576365 -0.08514376 -2.45
1.0698651 -0.044536147 -2.45
1.0739413 -0.038445007 -2.45
1.0739413 -0.022201961 -2.45
1.0922842 0.0062233694 -2.45
1.0780175 0.018405654 -2.45
1.0820936 0.014344892 -2.45
1.0780175 0.024496796 -2.45
1.0820936 0.022466416 -2.45
1.0769985 0.035663892 -2.45
1.0780175 0.042770222 -2.45
1.0820936 0.052922126 -2.45
1.0861698 0.06510441 -2.45
1.0861698 0.079317078 -2.45
1.0861698 0.085408218 -2.45
1.0861698 0.091499358 -2.45
1.0983984 0.11789431 -2.45
1.0943223 0.12601583 -2.45
1.0983984 0.13413736 -2.45
1.0943223 0.14428926 -2.45
1.0963604 0.15444115 -2.45
1.0983984 0.1605323 -2.45
1.1024746 0.16662344 -2.45
1.1065508 0.17271459 -2.45
1.1106271 0.18692726 -2.45
1.1147033 0.2031703 -2.45
1.1187794 0.21738297 -2.45
1.1187794 0.2255045 -2.45
1.1187794 0.23565638 -2.45
1.117149 0.24662045 -2.45
1.1187794 0.25799057 -2.45
1.1187794 0.26408172 -2.45
1.1187794 0.27220324 -2.45
1.1228555 0.2843855 -2.45
1.1269318 0.29453743 -2.45
1.1269318 0.30671972 -2.45
1.1340652 0.34631214 -2.45
0.92443246 -0.84166068 -2.4319999
0.93252492 -0.81613147 -2.4319999
0.9446637 -0.77179128 -2.4319999
0.94870996 -0.67101806 -2.4319999
0.94870996 -0.66698718 -2.4319999
0.95275617 -0.66295624 -2.4319999
0.95376772 -0.65388662 -2.4319999
0.95477927 -0.64683253 -2.4319999
0.94668686 -0.63070881 -2.4319999
0.95477927 -0.63070881 -2.4319999
0.94668686 -0.62466246 -2.4319999
0.95477927 -0.6246624 -2.4319999
0.96287179 -0.62264699 -2.4319999
0.94581974 -0.61400926 -2.4319999
0.95477933 -0.6145851 -2.4319999
0.9659065 -0.61760831 -2.4319999
0.94668686 -0.60652328 -2.4319999
0.95680243 -0.6045078 -2.4319999
0.96287179 -0.59241498 -2.4319999
0.96489489 -0.58435315 -2.4319999
0.96489489 -0.57830679 -2.4319999
1.0559354 -0.11071923 -2.4319999
1.0640279 -0.11071923 -2.4319999
1.0700972 -0.11071923 -2.4319999
1.0559354 -0.10668831 -2.4319999
1.0620048 -0.10668831 -2.4319999
1.0640279 -0.090564601 -2.4319999
1.0700972 -0.090564601 -2.4319999
1.0559354 -0.086533673 -2.4319999
1.0620048 -0.086533673 -2.4319999
1.066051 -0.042193476 -2.4319999
1.066051 -0.03211616 -2.4319999
1.066051 -0.02606977 -2.4319999
1.0781897 0.010208573 -2.4319999
1.0842592 0.010208573 -2.4319999
1.0903286 0.010208573 -2.4319999
1.0741435 0.026332282 -2.4319999
1.0741435 0.034394134 -2.4319999
1.0754923 0.045143276 -2.4319999
1.0781897 0.05454877 -2.4319999
1.0842592 0.066641554 -2.4319999
1.0842592 0.072687939 -2.4319999
1.0822361 0.086796187 -2.4319999
1.0822361 0.094858043 -2.4319999
1.0842592 0.10493536 -2.4319999
1.0923517 0.11501268 -2.4319999
1.0923517 0.12509 -2.4319999
1.0955309 0.13574316 -2.4319999
1.0923517 0.14524463 -2.4319999
1.0950491 0.15532194 -2.4319999
1.0984211 0.16539925 -2.4319999
1.1024672 0.17749205 -2.4319999
1.1065135 0.18756936 -2.4319999
1.1065135 0.19361576 -2.4319999
1.1105597 0.19966215 -2.4319999
1.1105597 0.20570853 -2.4319999
1.1105597 0.21175492 -2.4319999
1.114606 0.22586316 -2.4319999
1.114606 0.23594047 -2.4319999
1.1159548 0.24668963 -2.4319999
1.1166291 0.25407964 -2.4319999
1.1162245 0.26335081 -2.4319999
1.114606 0.27423429 -2.4319999
1.1186522 0.28632706 -2.4319999
1.1226985 0.29438895 -2.4319999
1.1186522 0.30849716 -2.4319999
1.1226985 0.30245078 -2.4319999
1.1186522 0.3125281 -2.4319999
1.1226985 0.3346982 -2.4319999
1.1267447 0.34074458 -2.4319999
1.1307909 0.34074458 -2.4319999
0.91596156 -0.83044034 -2.415
0.92332786 -0.83444309 -2.415
0.93404239 -0.83577734 -2.415
0.91596156 -0.82643759 -2.415
0.92198855 -0.82443619 -2.415
0.95011425 -0.82243484 -2.415
0.9260065 -0.81643069 -2.415
0.9334684 -0.81557304 -2.4149997
0.94408727 -0.81843209 -2.415
0.95011425 -0.81843209 -2.415
0.93002439 -0.80642384 -2.415
0.93404245 -0.77440184 -2.415
0.9460963 -0.68434 -2.415
0.94448912 -0.67353255 -2.415
0.9460963 -0.66432619 -2.415
0.95011425 -0.66432619 -2.415
0.95172137 -0.6535188 -2.415
0.9460963 -0.63230419 -2.415
0.95011425 -0.63230419 -2.415
0.93203342 -0.62229735 -2.415
0.95614117 -0.62229735 -2.415
0.93203342 -0.6102891 -2.415
0.95614117 -0.6102891 -2.415
0.95614117 -0.604285 -2.415
0.9621681 -0.604285 -2.415
0.95654297 -0.59507865 -2.415
0.9621681 -0.5962795 -2.415
1.0525723 -0.15397555 -2.415
1.0525723 -0.1499728 -2.415
1.0465454 -0.12395492 -2.415
1.0585992 -0.12195355 -2.415
1.0626172 -0.12195355 -2.415
1.0465454 -0.11594942 -2.415
1.0545813 -0.11594942 -2.415
1.0639566 -0.11661655 -2.415
1.0465454 -0.08192604 -2.415
1.0545813 -0.08326029 -2.415
1.0626172 -0.085928798 -2.415
1.0465454 -0.075921915 -2.415
1.0505633 -0.07792329 -2.415
1.0465454 -0.067916416 -2.415
1.0585992 -0.047902666 -2.415
1.0626172 -0.033893038 -2.415
1.0626172 -0.021884788 -2.415
1.0706531 0.01614134 -2.415
1.0719924 0.023479715 -2.415
1.0706531 0.034153719 -2.415
1.0726621 0.044160593 -2.415
1.0766801 0.054167468 -2.415
1.0766801 0.062172968 -2.415
1.0766801 0.078183971 -2.415
1.082707 0.070178472 -2.415
1.0773498 0.083520971 -2.415
1.0786891 0.094194971 -2.415
1.0786891 0.10220047 -2.415
1.082707 0.10620322 -2.415
1.0867249 0.11420872 -2.415
1.0907429 0.11821147 -2.415
1.0907429 0.1242156 -2.415
1.0947609 0.13622385 -2.415
1.092752 0.14422935 -2.415
1.092752 0.15023348 -2.415
1.0947609 0.16624448 -2.415
1.0967698 0.17424998 -2.415
1.0987788 0.18225548 -2.415
1.1027968 0.18625823 -2.415
1.1027968 0.19226235 -2.415
1.1068147 0.2042706 -2.415
1.1108327 0.2042706 -2.415
1.1068147 0.21427746 -2.415
1.1108327 0.23829399 -2.415
1.1128417 0.24429812 -2.415
1.1148508 0.25430498 -2.415
1.1156543 0.26471213 -2.415
1.1228867 0.26431185 -2.415
1.1148508 0.27431872 -2.415
1.1228867 0.27431872 -2.415
1.1148508 0.2843256 -2.415
1.1188686 0.29032972 -2.415
1.1228867 0.29032972 -2.415
1.1148508 0.32435313 -2.415
1.1188686 0.33235863 -2.415
1.1228867 0.33235863 -2.415
0.91948813 -0.82459468 -2.398
0.9250735 -0.82379973 -2.398
0.93544674 -0.82260734 -2.398
0.91948807 -0.8166455 -2.398
0.92547256 -0.8166455 -2.398
0.93544674 -0.81664544 -2.398
0.92746735 -0.80472177 -2.398
0.93345189 -0.80670905 -2.398
0.92746735 -0.79279804 -2.398
0.93145704 -0.79279804 -2.398
0.92587149 -0.78564382 -2.398
0.93245447 -0.78385526 -2.398
0.92746735 -0.77689976 -2.398
0.93544674 -0.77491242 -2.398
0.94342613 -0.77292514 -2.398
0.93544674 -0.69542098 -2.398
0.93943644 -0.68747187 -2.398
0.94342613 -0.68150997 -2.398
0.94342613 -0.67554808 -2.398
0.94542098 -0.66561168 -2.398
0.94741571 -0.65567523 -2.398
0.94741571 -0.64176422 -2.398
0.95140541 -0.64772606 -2.398
0.94741571 -0.63580239 -2.398
0.94741565 -0.62586594 -2.398
0.95140541 -0.62189138 -2.398
0.92547256 -0.61394221 -2.398
0.92547256 -0.60996765 -2.398
0.9593848 -0.60400581 -2.398
0.9633745 -0.60599309 -2.398
0.9553951 -0.58612019 -2.398
0.9553951 -0.57220918 -2.398
0.98731256 -0.43111181 -2.398
0.99289799 -0.43588132 -2.398
0.97933316 -0.42713726 -2.398
0.98531771 -0.42713726 -2.398
1.0451628 -0.14295524 -2.398
1.0511473 -0.14096795 -2.398
1.0451628 -0.13699338 -2.398
1.0511473 -0.13699338 -2.398
1.0451628 -0.12308236 -2.398
1.0531422 -0.12506965 -2.398
1.055137 -0.081349343 -2.398
1.0458277 -0.074725054 -2.398
1.0451628 -0.06942562 -2.398
1.055137 -0.043590888 -2.398
1.055137 -0.037629031 -2.398
1.055137 -0.027692594 -2.398
1.0591267 -0.01775616 -2.398
1.0631164 -0.01775616 -2.398
1.0671061 0.016027715 -2.398
1.0724256 0.015365288 -2.398
1.0671061 0.027951438 -2.398
1.0671061 0.035900585 -2.398
1.0671061 0.041862447 -2.398
1.0730906 0.047824308 -2.398
1.0750854 0.055773452 -2.398
1.0750854 0.063722603 -2.398
1.0750854 0.073659033 -2.398
1.0750854 0.087570041 -2.398
1.0750854 0.095519193 -2.398
1.0770802 0.10545562 -2.398
1.0870545 0.12930307 -2.398
1.0910442 0.14718865 -2.398
1.0870545 0.15513781 -2.398
1.0870545 0.16109966 -2.398
1.0910442 0.17302337 -2.398
1.0990236 0.18892168 -2.398
1.0990236 0.19488353 -2.398
1.1030133 0.19488353 -2.398
1.1030133 0.20879453 -2.398
1.1030133 0.21276912 -2.398
1.107003 0.24059112 -2.398
1.1129875 0.25450212 -2.398
1.1129874 0.28232414 -2.398
1.1129875 0.2942479 -2.398
1.107003 0.3061716 -2.398
1.1129875 0.31412074 -2.398
1.1129875 0.32206988 -2.398
0.92541975 -0.79394299 -2.3810003
0.92881519 -0.78520453 -2.381
0.92881519 -0.77928489 -2.381
0.92485374 -0.76349932 -2.381
0.92485374 -0.75955296 -2.381
0.93277657 -0.70035696 -2.381
0.93277657 -0.69443738 -2.381
0.93277657 -0.68851781 -2.381
0.9406994 -0.6668126 -2.381
0.94466072 -0.65300024 -2.381
0.94664145 -0.64510739 -2.381
0.94466072 -0.63524139 -2.381
0.94466072 -0.62537545 -2.381
0.95258349 -0.59380424 -2.381
0.95258349 -0.58788466 -2.381
0.94862211 -0.57604545 -2.381
0.96446764 -0.51882273 -2.381
0.97437114 -0.44581437 -2.381
0.98427463 -0.44581437 -2.3810003
0.97437119 -0.43594837 -2.3810003
0.98269016 -0.43752694 -2.381
0.97437119 -0.42805558 -2.381
0.9961589 -0.29585129 -2.381
1.0001203 -0.29782447 -2.381
1.0436956 -0.07485304 -2.381
1.0377535 -0.063013852 -2.381
1.0436956 -0.064987049 -2.381
1.0377535 -0.055121057 -2.381
1.0436956 -0.055121057 -2.381
1.047657 -0.049201459 -2.381
1.0516183 -0.049201459 -2.381
1.0545894 -0.036375672 -2.381
1.0516183 -0.02157668 -2.381
1.0595412 -0.001844695 -2.381
1.0595412 0.0021017021 -2.381
1.0635026 0.0021017021 -2.381
1.0674639 0.017887291 -2.381
1.0727459 0.015256359 -2.381
1.0654832 0.025780084 -2.3810003
1.0654832 0.035646077 -2.381
1.0661434 0.042881135 -2.381
1.0714254 0.04748527 -2.381
1.0714254 0.055378065 -2.381
1.0714254 0.065244056 -2.381
1.0674639 0.077083245 -2.381
1.0674639 0.081029646 -2.381
1.0714254 0.088922441 -2.381
1.0714254 0.094842032 -2.381
1.0738022 0.10391875 -2.381
1.0753868 0.11260082 -2.381
1.0793481 0.12246682 -2.381
1.0833095 0.12838641 -2.381
1.0833095 0.134306 -2.381
1.0852902 0.144172 -2.381
1.0842999 0.15699778 -2.381
1.0852902 0.16587718 -2.381
1.087271 0.17574318 -2.381
1.1070778 0.19942155 -2.381
1.1070778 0.20336795 -2.381
1.1057574 0.23757005 -2.381
1.1050972 0.24480513 -2.381
1.1050972 0.29808149 -2.381
1.1050972 0.30400109 -2.381
0.92650843 -0.79560757 -2.365
0.93044317 -0.79560757 -2.365
0.93437797 -0.66821152 -2.365
0.93831271 -0.65253198 -2.365
0.94224745 -0.6329326 -2.365
0.95405179 -0.59373385 -2.365
0.95011705 -0.58197421 -2.365
0.94618219 -0.57413441 -2.365
0.94618219 -0.56433475 -2.365
0.93831271 -0.53297573 -2.365
0.93831271 -0.52513599 -2.365
0.93831271 -0.51925617 -2.365
0.94224745 -0.5172962 -2.365
0.95405185 -0.51533628 -2.365
0.96743 -0.4635939 -2.365
0.96782351 -0.45457816 -2.365
0.96782351 -0.44869837 -2.365
0.9933995 -0.29190326 -2.365
0.98946476 -0.28406349 -2.365
0.99438322 -0.28406349 -2.365
1.0445517 -0.074350044 -2.365
1.0524212 -0.072390102 -2.365
1.0434275 -0.065110318 -2.365
1.0524212 -0.068470217 -2.365
1.0425842 -0.054750644 -2.365
1.0445516 -0.042991016 -2.365
1.0484865 -0.03319132 -2.365
1.0524212 -0.03319132 -2.365
1.0445516 -0.027311504 -2.365
1.0681602 0.01776709 -2.365
1.0657994 0.02482287 -2.365
1.072095 0.023646906 -2.365
1.0642254 0.035406541 -2.365
1.0668486 0.045206234 -2.365
1.072095 0.047166172 -2.365
1.0681602 0.053045988 -2.365
1.0642254 0.074605316 -2.365
1.0655371 0.084405012 -2.365
1.0681602 0.094204709 -2.365
1.0740625 0.11772397 -2.365
1.0760299 0.12360379 -2.365
1.0799646 0.14320318 -2.365
1.0799646 0.15300287 -2.365
1.0937362 0.20200135 -2.365
1.0878341 0.21376097 -2.365
1.0878341 0.22748056 -2.365
1.0937362 0.23336037 -2.365
0.9221943 -0.78243828 -2.349
0.92024022 -0.77465153 -2.349
0.91633207 -0.75323808 -2.349
0.9221943 -0.75323808 -2.349
0.91633207 -0.74934471 -2.349
0.92414838 -0.74934465 -2.349
0.92414838 -0.68510431 -2.349
0.92414838 -0.67537093 -2.349
0.92805654 -0.66758418 -2.349
0.9319647 -0.65395743 -2.349
0.93587285 -0.62475723 -2.349
0.94564319 -0.58387697 -2.349
0.95150542 -0.58582366 -2.349
0.94564319 -0.57414359 -2.349
0.94368911 -0.56441021 -2.349
0.94368911 -0.55662346 -2.349
0.92414838 -0.53131664 -2.349
0.93782687 -0.53326333 -2.349
0.94499183 -0.53391224 -2.349
0.92414838 -0.52547663 -2.349
0.93782687 -0.52547663 -2.349
0.94368911 -0.52547663 -2.349
0.92492998 -0.51807922 -2.349
0.93880391 -0.51671654 -2.349
0.94466615 -0.51574326 -2.349
0.93978095 -0.5079565 -2.349
0.94368911 -0.5079565 -2.349
0.95932174 -0.480703 -2.349
0.95932174 -0.47486293 -2.349
0.95932174 -0.46902293 -2.349
0.96518397 -0.46318287 -2.349
0.96713805 -0.45539618 -2.349
0.96713805 -0.44760942 -2.349
0.97300041 -0.44566277 -2.349
1.0445197 -0.061777622 -2.349
1.0453013 -0.054380242 -2.349
1.0453012 -0.048540205 -2.349
1.041393 -0.025180051 -2.349
1.0628879 0.029326964 -2.349
1.0640604 0.034777664 -2.349
1.065819 0.043927062 -2.349
1.0746124 0.046847079 -2.349
1.0804746 0.048793755 -2.349
1.0635393 0.055282686 -2.349
1.0609338 0.06436719 -2.349
1.0635393 0.085131772 -2.349
1.064842 0.095514059 -2.349
1.064842 0.10330077 -2.349
1.0726583 0.13834099 -2.349
1.0765665 0.14612772 -2.349
1.0765665 0.15391444 -2.349
1.0804746 0.15391444 -2.349
1.0765665 0.1655945 -2.349
1.0843829 0.16559452 -2.349
1.0765665 0.1753279 -2.349
1.0765665 0.18116795 -2.349
1.0863369 0.20452809 -2.349
1.0804746 0.21620817 -2.349
1.0843828 0.22529268 -2.349
0.91785365 -0.77130848 -2.3329999
0.92173517 -0.77130848 -2.3329999
0.91655976 -0.76486379 -2.3329999
0.92173517 -0.76550823 -2.3329999
0.91655976 -0.75841904 -2.3329999
0.92173517 -0.75777459 -2.3329999
0.91785365 -0.6901049 -2.3329999
0.91785365 -0.68623805 -2.3329999
0.92173517 -0.6823712 -2.3329999
0.92173511 -0.67463756 -2.3329999
0.92173517 -0.66690385 -2.3329999
0.92561674 -0.6553033 -2.3329999
0.9294982 -0.63210231 -2.3329999
0.9294982 -0.61470151 -2.3329999
0.9294982 -0.60503441 -2.3329999
0.94502437 -0.57796651 -2.3329999
0.94114286 -0.52576423 -2.3329999
0.9424367 -0.51609713 -2.3329999
0.95278746 -0.48129556 -2.3329999
0.95666903 -0.47356188 -2.3329999
0.95666903 -0.46776164 -2.3329999
0.96346164 -0.46292809 -2.3329999
0.96637279 -0.45422769 -2.3329999
0.97219509 -0.45229426 -2.3329999
0.94761211 -0.44391611 -2.3329999
0.96637279 -0.44649401 -2.3329999
0.97219509 -0.44649401 -2.3329999
0.98383975 -0.29182044 -2.3329999
0.98513365 -0.28537571 -2.3329999
0.99160272 -0.28408676 -2.3329999
1.0381812 -0.026941961 -2.3329999
1.065352 0.036860883 -2.3329999
1.065352 0.040727723 -2.3329999
1.0614704 0.05232824 -2.3329999
1.0575888 0.06006192 -2.3329999
1.055648 0.075529277 -2.3329999
1.0614704 0.098730311 -2.3329999
1.0575888 0.10646399 -2.3329999
1.0614704 0.10259715 -2.3329999
1.0575888 0.11033083 -2.3329999
1.0614704 0.11419766 -2.3329999
1.065352 0.12579818 -2.3329999
1.065352 0.13353187 -2.3329999
1.0750558 0.14706579 -2.3329999
1.080878 0.14899921 -2.3329999
1.0769966 0.15479949 -2.3329999
1.080878 0.15479949 -2.3329999
1.073115 0.1760671 -2.3329999
1.073115 0.18380077 -2.3329999
1.0769966 0.20700181 -2.3329999
1.080878 0.20700181 -2.3329999
1.0769966 0.21473549 -2.3329999
1.080878 0.21473546 -2.3329999
1.0769966 0.22246917 -2.3329999
1.080878 0.22246917 -2.3329999
0.907704 -0.73529619 -2.3169999
0.91541368 -0.73529619 -2.3169999
0.91541368 -0.68537205 -2.3169999
0.91926873 -0.67001075 -2.3169999
0.91926873 -0.66425025 -2.3169999
0.91926873 -0.65656966 -2.3169999
0.92505103 -0.65272933 -2.3169999
0.92440861 -0.64568871 -2.3169999
0.92312366 -0.63544786 -2.3169999
0.92697847 -0.61624628 -2.3169999
0.92697847 -0.60280514 -2.3169999
0.92569351 -0.59448451 -2.3169999
0.9385432 -0.57016242 -2.3169999
0.93468839 -0.56248182 -2.3169999
0.93468839 -0.55672133 -2.3169999
0.9385432 -0.51447779 -2.3169999
0.94239813 -0.49719638 -2.3169999
0.94625312 -0.4818351 -2.3169999
0.95203543 -0.47223428 -2.3169999
0.9565329 -0.46519372 -2.3169999
1.0310612 -0.02099671 -2.3169999
1.0310612 -0.01715639 -2.3169999
1.0503358 0.06541048 -2.3169999
1.0541906 0.092292726 -2.3169999
1.0554756 0.10573384 -2.3169999
1.0580456 0.1172548 -2.3169999
1.0619005 0.1364564 -2.3169999
1.0657554 0.14157684 -2.3169999
1.0734652 0.14413704 -2.3169999
1.0696104 0.1748596 -2.3169999
1.0734652 0.1748596 -2.3169999
1.0696104 0.18254024 -2.3169999
1.0734652 0.18254024 -2.3169999
1.0696104 0.1940612 -2.3169999
1.0734652 0.1940612 -2.3169999
0.89760762 -0.72449803 -2.3010001
0.90271193 -0.72513366 -2.3010001
0.89377928 -0.71496344 -2.3010001
0.92249155 -0.70733589 -2.3010001
0.90909243 -0.68826687 -2.3010001
0.91292077 -0.68445307 -2.3010001
0.91292077 -0.67301166 -2.3010001
0.91547298 -0.66538405 -2.3010001
0.92057735 -0.66157025 -2.3010001
0.91674912 -0.65584958 -2.3010001
0.92057735 -0.65584958 -2.3010001
0.92057735 -0.63487369 -2.3010001
0.92057735 -0.62533915 -2.3010001
0.92185348 -0.61580467 -2.3010001
0.92057735 -0.60627019 -2.3010001
0.93206227 -0.55478382 -2.3010001
0.92823392 -0.54715621 -2.3010001
0.92823392 -0.53190106 -2.3010001
0.93206227 -0.53190106 -2.3010001
0.93206227 -0.52045965 -2.3010001
0.93397641 -0.51473892 -2.3010001
0.93589061 -0.50711131 -2.3010001
0.93971884 -0.49376303 -2.3010001
0.9397189 -0.48613539 -2.3010001
0.94546127 -0.47278714 -2.3010001
0.92823392 -0.44418362 -2.3010001
0.93359357 -0.44494638 -2.3010001
0.9703452 -0.30497989 -2.3010001
0.9703452 -0.29735228 -2.3010001
1.020113 -0.043734524 -2.3010001
1.020113 -0.039920725 -2.3010001
1.0469111 0.055424299 -2.3010001
1.0469111 0.066865705 -2.3010001
1.0469111 0.074493304 -2.3010001
1.0469111 0.084027804 -2.3010001
1.0507394 0.089748509 -2.3010001
1.0507394 0.10691062 -2.3010001
1.0526536 0.11453822 -2.3010001
1.0564818 0.12407272 -2.3010004
1.0571198 0.13297158 -2.3010001
1.0641384 0.13742101 -2.3010001
1.0641384 0.18700042 -2.3010001
0.93549454 -0.77282017 -2.286
0.93739623 -0.76713675 -2.286
0.90316612 -0.7216695 -2.286
0.89610279 -0.71300906 -2.286
0.90316612 -0.7140916 -2.286
0.89632016 -0.7049982 -2.286
0.90443391 -0.70398778 -2.286
0.91077286 -0.70272481 -2.286
0.91647792 -0.69893587 -2.286
0.90696949 -0.68378007 -2.286
0.90696949 -0.67430776 -2.286
0.91204065 -0.66483539 -2.286
0.91837955 -0.60231793 -2.286
0.91837955 -0.59474003 -2.286
0.91742873 -0.58432043 -2.286
0.92725396 -0.5549562 -2.286
0.92725396 -0.54611534 -2.286
0.91837955 -0.53411698 -2.286
0.92408448 -0.53601146 -2.286
0.91647792 -0.52464467 -2.286
0.92471838 -0.52338171 -2.286
0.92978954 -0.51327783 -2.286
0.93359286 -0.50569999 -2.286
0.92978954 -0.49622762 -2.286
0.93486065 -0.49433315 -2.286
0.93739623 -0.48486081 -2.286
0.93739623 -0.47728294 -2.286
0.94119948 -0.47349399 -2.286
0.94690454 -0.46212718 -2.286
0.94880623 -0.45644376 -2.286
0.97733128 -0.30109727 -2.286
0.98303628 -0.30109727 -2.286
0.96782291 -0.29730833 -2.286
0.97162622 -0.29730833 -2.286
1.0172663 -0.04344942 -2.286
1.0172663 -0.039660484 -2.286
1.0449764 0.055604272 -2.286
1.0514963 0.051274054 -2.286
1.041988 0.062640868 -2.286
1.0451574 0.07527066 -2.286
1.047693 0.11189707 -2.286
1.0546657 0.11568601 -2.286
1.0572014 0.12515835 -2.286
1.0572014 0.13084178 -2.286
0.92746693 -0.76210302 -2.2709999
0.92746693 -0.75833893 -2.2709999
0.9010182 -0.71505201 -2.2709999
0.90290737 -0.70564181 -2.2709999
0.88968307 -0.69246757 -2.2709999
0.89535064 -0.69246757 -2.2709999
0.90290737 -0.69246763 -2.2709999
0.88968307 -0.68682146 -2.2709999
0.89598036 -0.68556672 -2.2709999
0.9010182 -0.68493944 -2.2709999
0.9047966 -0.67552924 -2.2709999
0.9047966 -0.66800112 -2.2709999
0.91235334 -0.65482682 -2.2709999
0.91235334 -0.64541656 -2.2709999
0.91235334 -0.6341244 -2.2709999
0.91235334 -0.62471426 -2.2709999
0.91235334 -0.61530399 -2.2709999
0.91235334 -0.60777587 -2.2709999
0.91613173 -0.59271955 -2.2709999
0.91613173 -0.58519143 -2.2709999
0.91613173 -0.57578123 -2.2709999
0.92368847 -0.55131471 -2.2709999
0.9255777 -0.54190451 -2.2709999
0.92368847 -0.53437638 -2.2709999
0.92368847 -0.52496618 -2.2709999
0.92368847 -0.51555598 -2.2709999
0.92746693 -0.50990987 -2.2709999
0.93124533 -0.49485353 -2.2709999
0.93502367 -0.48544335 -2.2709999
0.93502367 -0.47791523 -2.2709999
0.93880206 -0.46474093 -2.2709999
0.94258046 -0.46097687 -2.2709999
0.95202637 -0.38193125 -2.2709999
0.94635886 -0.37440309 -2.2709999
0.95202637 -0.37628514 -2.2709999
0.9463588 -0.36499292 -2.2709999
0.964495 -0.30439126 -2.2709999
0.97469664 -0.30288562 -2.2709999
0.96525073 -0.29473013 -2.2709999
0.97469664 -0.29535747 -2.2709999
0.95769393 -0.28782931 -2.2709999
0.96241689 -0.28500625 -2.2709999
1.0143696 -0.035636164 -2.2709999
1.0143696 -0.022461895 -2.2709999
1.0370399 0.067875952 -2.2709999
1.0370399 0.082932264 -2.2709999
1.0370399 0.09422449 -2.2709999
0.9138341 -0.76267821 -2.2560003
0.91383415 -0.75706935 -2.256
0.8988204 -0.71219879 -2.256
0.8988204 -0.70845956 -2.256
0.8988204 -0.68228507 -2.256
0.8988204 -0.67854583 -2.256
0.90257388 -0.67293704 -2.256
0.90257388 -0.65798014 -2.256
0.91008067 -0.64115369 -2.256
0.91008067 -0.63741446 -2.256
0.91008067 -0.60189193 -2.256
0.91008067 -0.59441352 -2.256
0.92321765 -0.54206449 -2.256
0.921341 -0.53458607 -2.256
0.921341 -0.52523798 -2.256
0.921341 -0.51028115 -2.256
0.92509437 -0.50467229 -2.256
0.92509437 -0.49906349 -2.256
0.92884785 -0.48784584 -2.256
0.93260127 -0.4747586 -2.256
0.93385237 -0.46541056 -2.256
0.94010818 -0.45419291 -2.256
0.94573832 -0.36445174 -2.2560003
0.95324516 -0.36071253 -2.256
0.95512182 -0.31210274 -2.256
0.95512182 -0.3083635 -2.256
0.95887524 -0.28218901 -2.256
0.96262872 -0.28592822 -2.256
0.95887524 -0.27844977 -2.256
1.0076698 -0.04287922 -2.256
1.0076698 -0.035400789 -2.256
1.0076698 -0.027922358 -2.256
0.90589386 -0.74832124 -2.2409999
0.91148651 -0.74832124 -2.2409999
0.90402961 -0.62574762 -2.2409999
0.90402961 -0.61460453 -2.2409999
0.90402961 -0.60531867 -2.2409999
0.90775806 -0.5960328 -2.2409999
0.90775806 -0.58488971 -2.2409999
0.90775806 -0.57374668 -2.2409999
0.91148645 -0.57374668 -2.2409999
0.90775812 -0.56631792 -2.2409999
0.91148645 -0.55517483 -2.2409999
0.91521502 -0.54403186 -2.2409999
0.91645783 -0.51431704 -2.2409999
0.91894346 -0.50688827 -2.2409999
0.92267197 -0.49574527 -2.2409999
0.92453617 -0.48460218 -2.2409999
0.93012887 -0.48088783 -2.2409999
0.92640036 -0.47717348 -2.2409999
0.93137169 -0.47469723 -2.2409999
0.93199319 -0.46603036 -2.2409999
0.93385744 -0.45674449 -2.2409999
0.94504273 -0.37688592 -2.2409999
0.9562282 -0.31745628 -2.2409999
0.95498538 -0.30507508 -2.2409999
0.9562282 -0.28031275 -2.2409999
1.0270691 0.068836488 -2.2409999
1.0270691 0.10598002 -2.2409999
1.0307976 0.10598002 -2.2409999
0.89612687 -0.73593348 -2.2260001
0.90353394 -0.73962295 -2.2260001
0.89057159 -0.69165957 -2.2260001
0.89057159 -0.6879701 -2.2260001
0.89057159 -0.65660942 -2.2260001
0.8979786 -0.63631719 -2.2260001
0.90168214 -0.6123355 -2.2260001
0.90168214 -0.60495651 -2.2260001
0.90168214 -0.59942228 -2.2260001
0.90538567 -0.58097482 -2.2260001
0.90723741 -0.57544059 -2.2260001
0.90816325 -0.5652945 -2.2260001
0.91464436 -0.56437206 -2.2260001
0.90816325 -0.55607074 -2.2260001
0.90908909 -0.54407996 -2.2260001
0.91371852 -0.52471006 -2.2260001
0.91501474 -0.51456392 -2.2260001
0.91526157 -0.50595516 -2.2260001
0.91649616 -0.49980599 -2.2260001
0.92168111 -0.48431015 -2.2260001
0.92760664 -0.4758243 -2.2260001
0.93131018 -0.47029006 -2.2260001
0.93501371 -0.38174227 -2.2260001
0.93871725 -0.37436327 -2.2260001
0.93871725 -0.36513954 -2.2260001
0.93871725 -0.35960531 -2.2260001
0.94797599 -0.31164193 -2.2260001
0.94797599 -0.30795243 -2.2260001
0.95353132 -0.30241817 -2.2260001
0.95353132 -0.28397071 -2.2260001
0.94982779 -0.27290225 -2.2260001
0.95353132 -0.27843648 -2.2260001
0.94982779 -0.26552325 -2.2260001
1.0201945 0.062841497 -2.2260001
1.0201945 0.077599466 -2.2260001
1.0201945 0.084978446 -2.2260001
1.0201945 0.094202183 -2.2260001
1.0201945 0.10158116 -2.2260001
0.89785123 -0.73130488 -2.2119999
0.90337157 -0.73130488 -2.2119999
0.894171 -0.7276386 -2.2119999
0.89723784 -0.61398369 -2.2119999
0.89969128 -0.60481799 -2.2119999
0.89969128 -0.59565228 -2.2119999
0.90337157 -0.59381914 -2.2119999
0.89969128 -0.58465344 -2.2119999
0.90337157 -0.57548773 -2.2119999
0.90705174 -0.56815511 -2.2119999
0.91073191 -0.56632197 -2.2119999
0.90705174 -0.55348998 -2.2119999
0.90705174 -0.54432428 -2.2119999
0.90705174 -0.53699172 -2.2119999
0.91073197 -0.52599281 -2.2119999
0.9144122 -0.51132768 -2.2119999
0.9144122 -0.50399512 -2.2119999
0.91563892 -0.49421835 -2.2119999
0.91686565 -0.48810783 -2.2119999
0.92177266 -0.47833109 -2.2119999
0.92545283 -0.42333677 -2.2119999
0.93649346 -0.37200877 -2.2119999
0.93649346 -0.36467615 -2.2119999
0.92545289 -0.35001102 -2.2119999
0.9346534 -0.35367733 -2.2119999
0.92729294 -0.34451163 -2.2119999
0.94753414 -0.30784875 -2.2119999
0.94753414 -0.27301902 -2.2119999
0.94753414 -0.26568642 -2.2119999
0.95121437 -0.2510213 -2.2119999
0.95121437 -0.24552186 -2.2119999
0.96470851 -0.19602698 -2.2119999
0.87388396 -0.70299637 -2.198
0.87936944 -0.69206715 -2.198
0.87936944 -0.68660247 -2.198
0.88302636 -0.68295944 -2.198
0.88302636 -0.67931634 -2.198
0.87936944 -0.66474396 -2.198
0.88302636 -0.64470708 -2.198
0.88302636 -0.63924241 -2.198
0.89034021 -0.6173839 -2.198
0.89765406 -0.60463309 -2.198
0.89765406 -0.59734702 -2.198
0.89765406 -0.58277464 -2.198
0.89765406 -0.57731003 -2.198
0.9049679 -0.55180842 -2.198
0.90496796 -0.54452229 -2.198
0.9049679 -0.53541458 -2.198
0.90679634 -0.52630687 -2.198
0.90862483 -0.51537758 -2.198
0.91228175 -0.50444835 -2.198
0.91228175 -0.49534065 -2.198
0.91593868 -0.48441142 -2.198
0.91593868 -0.47894678 -2.198
0.9195956 -0.46437442 -2.198
0.9195956 -0.45526674 -2.198
0.9195956 -0.4498021 -2.198
0.91593868 -0.43887287 -2.198
0.92508101 -0.42065746 -2.198
0.93422335 -0.42065749 -2.198
0.94153714 -0.42065746 -2.198
0.91715765 -0.41580001 -2.198
0.92508101 -0.41701436 -2.198
0.93422335 -0.41701436 -2.198
0.94153714 -0.41701436 -2.198
0.91593868 -0.4060851 -2.198
0.92690945 -0.37694046 -2.198
0.93056637 -0.37329736 -2.198
0.93422329 -0.3660112 -2.198
0.94519407 -0.30407879 -2.198
0.94519407 -0.29679263 -2.198
0.94519407 -0.2822203 -2.198
0.94519407 -0.27493414 -2.198
0.94519407 -0.26400489 -2.198
0.95616484 -0.22210944 -2.198
0.95616484 -0.20207247 -2.198
0.95982176 -0.19842939 -2.198
0.98542023 -0.03266912 -2.198
0.9817633 -0.016275246 -2.198
0.98542023 0.0055832514 -2.198
1.0110188 0.094838783 -2.198
1.0110188 0.1003034 -2.198
0.87376833 -0.69399381 -2.184
0.87740201 -0.68584919 -2.184
0.88103563 -0.68584919 -2.184
0.88103563 -0.67860937 -2.184
0.87740195 -0.6623199 -2.184
0.88103563 -0.66412985 -2.184
0.87740195 -0.6550802 -2.184
0.87740195 -0.64784038 -2.184
0.88345796 -0.62431121 -2.184
0.88466918 -0.61707145 -2.184
0.88830286 -0.60802174 -2.184
0.8955701 -0.59535217 -2.184
0.8955701 -0.5844925 -2.184
0.8955701 -0.57001305 -2.184
0.89738691 -0.56458318 -2.184
0.90283746 -0.55191362 -2.184
0.90283746 -0.54648381 -2.184
0.90283746 -0.5320043 -2.184
0.90283746 -0.52476454 -2.184
0.90647101 -0.51571488 -2.184
0.90647101 -0.50847507 -2.184
0.91010469 -0.50304526 -2.184
0.91010469 -0.49399558 -2.184
0.91010469 -0.48675582 -2.184
0.91373831 -0.4722763 -2.184
0.91555512 -0.46503654 -2.184
0.91373831 -0.44331726 -2.184
0.91282988 -0.43517253 -2.184
0.91434389 -0.42521787 -2.184
0.92463923 -0.42159799 -2.184
0.91555512 -0.41073835 -2.184
0.92463923 -0.41073835 -2.184
0.91555512 -0.40530854 -2.184
0.92221671 -0.40591183 -2.184
0.91373831 -0.3986721 -2.184
0.92100555 -0.39987871 -2.184
0.91737193 -0.37815946 -2.184
0.9255476 -0.37453958 -2.184
0.93190646 -0.37453958 -2.184
0.92827284 -0.36367995 -2.184
0.93190646 -0.36367995 -2.184
0.92827284 -0.35644019 -2.184
0.90647101 -0.34196067 -2.184
0.91010469 -0.34196067 -2.184
0.91373831 -0.33291095 -2.184
0.94280738 -0.28042272 -2.184
0.94280738 -0.26775312 -2.184
0.94371581 -0.24331897 -2.184
0.95189142 -0.20440528 -2.184
0.95734197 -0.19535558 -2.184
0.95734197 -0.16639654 -2.184
0.95734197 -0.1555369 -2.184
0.96097553 -0.15734684 -2.184
0.96642601 -0.12838782 -2.184
0.97914368 -0.037890855 -2.184
0.98277736 -0.032461036 -2.184
0.97914368 -0.025221279 -2.184
0.98277736 -0.025221279 -2.184
0.97823524 -0.015266612 -2.184
0.98277736 -0.016171582 -2.184
0.97732687 -0.0053119469 -2.184
0.97914368 0.0019278107 -2.184
0.98277736 0.0055476893 -2.184
1.0045792 0.088804901 -2.184
0.87177765 -0.71022606 -2.1700001
0.86636209 -0.70303273 -2.1700001
0.87177765 -0.70483106 -2.1700001
0.8654595 -0.69853687 -2.1700001
0.87322176 -0.69512004 -2.1700001
0.8777948 -0.68504936 -2.1700001
0.87809569 -0.67336017 -2.1700001
0.88441384 -0.67246097 -2.1700001
0.87719309 -0.66526765 -2.1700001
0.88441384 -0.66526765 -2.1700001
0.87719309 -0.65627599 -2.1700001
0.87629056 -0.6445868 -2.1700001
0.87538797 -0.63469595 -2.1700001
0.8777948 -0.62630367 -2.1700001
0.88260865 -0.62210757 -2.1700001
0.88260865 -0.61491418 -2.1700001
0.88531643 -0.60682172 -2.1700001
0.88982934 -0.59872919 -2.1700001
0.88982934 -0.57355243 -2.1700001
0.88982934 -0.56995577 -2.1700001
0.89343965 -0.56456077 -2.1700001
0.89705002 -0.53578734 -2.1700001
0.90066034 -0.53039235 -2.1700001
0.90066034 -0.52499735 -2.1700001
0.90066034 -0.51960236 -2.1700001
0.90427065 -0.50521564 -2.1700001
0.90788096 -0.48183727 -2.1700001
0.90788096 -0.47464392 -2.1700001
0.91149139 -0.46205553 -2.1700001
0.91149139 -0.45306385 -2.1700001
0.91149139 -0.44587052 -2.1700001
0.91149139 -0.43328214 -2.1700001
0.91419911 -0.42518964 -2.1700001
0.92232245 -0.42249212 -2.1700001
0.92773795 -0.41889545 -2.1700001
0.91871202 -0.40091208 -2.1700001
0.92638403 -0.40405917 -2.1700001
0.93315339 -0.40450874 -2.1700001
0.90788096 -0.39371872 -2.1700001
0.91582376 -0.39371872 -2.1700001
0.92412758 -0.39551705 -2.1700001
0.92593277 -0.3829287 -2.1700001
0.91871202 -0.37573537 -2.1700001
0.92472935 -0.37693426 -2.1700001
0.92593277 -0.36674368 -2.1700001
0.92503023 -0.35325614 -2.1700001
0.91871202 -0.34336528 -2.1700001
0.92232245 -0.34516364 -2.1700001
0.90427065 -0.33617195 -2.1700001
0.91871202 -0.33976862 -2.1700001
0.92232245 -0.33797029 -2.1700001
0.93676382 -0.27323014 -2.1700001
0.93676382 -0.26064178 -2.1700001
0.94217932 -0.26064178 -2.1700001
0.93676382 -0.25524676 -2.1700001
0.94157761 -0.2558462 -2.1700001
0.93676382 -0.24985176 -2.1700001
0.94037414 -0.24445674 -2.1700001
0.94759482 -0.22827171 -2.1700001
0.94759482 -0.21388501 -2.1700001
0.94759482 -0.20669167 -2.1700001
0.95120513 -0.20309499 -2.1700001
0.95361203 -0.19590163 -2.1700001
0.95120513 -0.18690994 -2.1700001
0.95481545 -0.16353157 -2.1700001
0.95481545 -0.15993489 -2.1700001
